-0.891958 -0.220661 0.394613 -0.490393 0.833528 -0.254453
-0.766318 -0.193924 0.612496 -0.683610 0.700280 -0.205633
-0.176963 0.162567 0.970699 0.946234 0.268314 0.180688
-0.159076 0.158491 0.974462 0.963637 0.198528 0.178861
-0.467053 0.278094 0.839360 -0.720461 0.424900 0.548083
0.192330 -0.148426 0.970041 0.983722 0.124804 -0.129288
0.135882 0.980633 0.141051 -0.646138 0.161894 0.745852
-0.647982 0.247111 0.720456 -0.159948 0.969830 0.183976
0.283691 0.233236 0.930119 0.769635 0.262777 0.581903
-0.160866 0.224678 0.961063 -0.798563 0.449550 0.400252
-0.317620 0.148955 0.936445 -0.861437 0.296347 0.412437
-0.303269 0.037937 0.952150 -0.939982 0.076894 0.332448
-0.591985 -0.126147 0.796015 -0.977879 0.191066 0.085125
-0.486920 0.208249 0.848258 0.306638 0.930719 0.199339
0.604988 0.277431 0.746339 0.577384 0.271598 0.769976
-0.330341 0.230707 0.915232 -0.775730 0.424881 0.466605
-0.332412 -0.189910 0.923816 -0.895488 0.409292 -0.174876
-0.824718 0.565020 -0.024347 -0.695972 -0.066323 0.715000
-0.736191 -0.261866 0.624058 -0.975005 0.188168 -0.118142
-0.686612 0.724670 -0.058461 -0.959470 0.214604 0.182652
0.954810 0.018000 0.296670 0.159776 0.986449 -0.037278
0.607594 0.474523 0.636913 0.177981 0.922743 0.341861
0.042400 0.546037 0.836687 0.252577 0.762168 0.596075
0.618681 0.332935 0.711609 0.474245 0.302667 0.826731
0.800246 0.351392 0.485932 0.187393 0.241832 0.952051
-0.630708 0.032603 0.775335 -0.656564 0.753308 0.038078
0.881071 0.382756 0.277871 0.147068 0.134707 0.979911
-0.490629 -0.118823 0.863229 -0.470552 0.874317 -0.118958
0.141100 0.159266 0.977100 -0.259725 0.951862 0.162791
0.666860 0.287482 0.687497 0.664516 0.286246 0.690277
-0.425711 0.588287 0.687524 -0.434967 0.616620 0.656188
-0.306755 0.864717 0.397701 -0.312309 0.398939 0.862155
0.510514 0.364624 0.778733 0.621146 0.432081 0.653823
-0.377291 0.805975 0.456131 0.093429 0.414653 0.905171
-0.560761 0.181019 0.807948 -0.166208 0.975039 0.147221
0.815358 0.336103 0.471408 0.436807 0.885716 0.157184
-0.276830 0.380592 0.882335 0.515892 0.748076 0.417418
-0.715382 0.405219 0.569233 -0.299167 0.920094 0.252835
-0.625846 0.487669 0.608684 0.214128 0.889170 0.404383
0.837223 0.377830 0.395351 -0.356427 0.870862 0.338466
0.548962 0.788146 0.278329 0.376184 0.878096 0.295692
-0.864513 0.232834 0.445428 -0.097515 0.986895 0.128568
0.488197 0.854708 0.176458 0.710730 0.678935 0.184146
-0.835246 0.508692 0.208796 -0.124848 0.964366 0.233262
0.009974 0.951884 0.306297 0.785603 0.500723 0.363462
0.341252 0.731734 0.590010 0.254714 0.797126 0.547459
-0.841938 0.384378 0.378674 -0.615374 0.773301 0.152714
-0.852513 0.439456 0.283018 -0.535030 0.835425 0.125733
-0.679922 0.677348 0.280902 -0.749053 0.562866 0.349430
-0.609620 0.128138 0.782268 -0.394816 0.913504 0.098136
-0.938400 0.217478 0.268532 -0.420672 0.907184 0.007246
-0.049969 0.985984 0.159180 0.957282 0.257373 0.131795
0.493547 0.776714 0.391313 0.350812 0.854274 0.383596
0.354764 0.743268 0.567182 0.119384 0.835896 0.535748
-0.772576 0.312909 0.552462 -0.670934 0.706763 0.224351
-0.501955 0.644382 0.576899 -0.489761 0.546832 0.679050
0.341502 0.615831 0.710020 -0.127602 0.824496 0.551292
-0.406576 -0.013254 0.913521 -0.631956 0.774992 0.004390
-0.028358 0.194486 0.980495 0.048744 0.979661 0.194651
-0.127013 -0.009304 0.991857 -0.450051 0.892973 -0.007243
-0.460620 0.274441 0.844104 -0.657076 0.659428 0.365247
0.154351 0.918829 0.363221 -0.094737 0.359724 0.928237
-0.151532 0.027864 0.988060 -0.546888 0.836302 0.038895
-0.482409 0.469144 0.739720 -0.539380 0.645858 0.540312
-0.334504 0.121013 0.934592 -0.657923 0.733394 0.171087
-0.160246 0.188774 0.968858 0.512372 0.833216 0.207908
-0.230584 0.381824 0.895009 -0.557629 0.652722 0.512838
-0.658922 0.085548 0.747330 -0.426721 0.902814 0.053255
0.161031 0.366394 0.916420 0.578315 0.646647 0.497393
-0.750324 0.642833 0.154204 0.131060 0.130767 0.982712
-0.478818 0.856233 0.193900 -0.797573 0.405865 0.446263
-0.936531 0.227908 0.266397 -0.936169 0.222401 0.272260
-0.888143 0.186713 0.419930 -0.901796 0.368258 0.226162
-0.768452 -0.225662 0.598798 -0.813716 0.540325 -0.214281
-0.985234 0.095446 0.142140 -0.985747 0.107891 0.129082
0.840785 0.405819 -0.358319 0.884907 -0.336326 0.322218
0.945682 0.246601 -0.211834 0.942868 -0.215471 0.254109
-0.598270 0.627079 0.498843 -0.510908 0.408455 0.756398
0.895743 0.234854 0.377477 0.609794 0.061983 0.790132
-0.588266 -0.089928 0.803652 -0.884465 0.466581 -0.004882
-0.913922 0.300748 0.272575 -0.880632 0.156355 0.447259
-0.897148 0.244198 0.368094 -0.872906 0.180720 0.453184
-0.874726 0.440777 -0.201422 -0.742946 -0.241569 0.624239
-0.835948 0.366872 0.408161 -0.591967 0.158257 0.790272
-0.430880 0.139371 0.891582 -0.850949 0.296422 0.433613
-0.212479 0.358276 0.909116 0.839230 0.267317 0.473534
0.391410 0.680880 0.619032 -0.282767 0.581469 0.762848
-0.688206 0.385476 0.614639 0.424750 0.831464 0.358127
-0.172622 0.947860 0.267886 -0.759048 0.469546 0.450969
-0.869532 0.374149 0.322377 -0.813759 0.193540 0.548032
0.611344 -0.218025 0.760739 0.917976 0.370091 -0.142664
0.810597 0.541697 -0.222479 0.803925 -0.224411 0.550767
0.873263 0.403062 0.273776 0.765616 0.133873 0.629214
-0.508273 0.448583 0.735141 -0.579141 0.582920 0.569912
-0.250935 -0.035693 0.967346 -0.597906 0.801084 -0.027817
0.382586 0.089159 0.919608 0.868977 0.422900 0.256973
-0.991498 0.021130 0.128398 -0.687461 -0.189655 0.701020
-0.947426 0.319356 0.019912 -0.599694 -0.120124 0.791162
-0.637066 -0.124703 0.760655 -0.929119 0.369628 -0.010619
-0.460262 -0.118396 0.879853 -0.967927 0.249683 0.027858
-0.967630 0.248990 0.041178 -0.561889 -0.127526 0.817324
-0.936551 0.016554 0.350141 -0.934603 0.013434 0.355440
-0.536470 -0.160011 0.828611 -0.987635 0.152524 0.036257
-0.844924 -0.149909 0.513450 -0.990881 0.100652 0.089582
-0.498512 -0.235336 0.834328 -0.972398 0.196488 -0.125833
-0.786342 0.128613 0.604256 -0.870323 0.220586 0.440318
-0.549383 -0.203788 0.810338 -0.945356 0.307795 -0.107539
-0.986991 0.120773 -0.106126 -0.272261 -0.167611 0.947513
-0.399636 -0.082867 0.912921 -0.980543 0.021091 0.195170
0.445108 0.174723 0.878266 0.806553 0.275772 0.522898
-0.347867 0.932378 -0.098282 -0.739929 -0.083094 0.667533
-0.874306 0.465777 0.136532 -0.679217 0.025882 0.733481
0.040393 0.997274 0.061756 -0.391353 0.066004 0.917871
0.740268 -0.200168 0.641822 0.995224 0.077314 0.059603
-0.863926 0.489018 -0.120391 -0.960801 -0.016734 0.276732
-0.629841 -0.063309 0.774140 -0.853640 0.520828 0.006040
-0.833829 0.388484 0.392186 -0.519948 0.155085 0.840002
-0.412289 -0.017645 0.910882 -0.927361 0.350519 0.130914
0.263372 0.014577 0.964584 0.861583 0.499264 0.091709
-0.788437 0.428287 0.441517 -0.786864 0.406982 0.463909
0.494097 -0.169122 0.852799 0.994953 0.092472 0.038943
-0.967208 0.116401 0.225742 -0.802248 -0.073499 0.592450
-0.553457 0.051285 0.831297 -0.888876 0.164065 0.427764
-0.584351 -0.073055 0.808206 -0.957484 0.073924 0.278855
-0.657694 -0.003771 0.753276 -0.877170 0.058770 0.476569
-0.946099 0.182329 0.267682 -0.531579 -0.018311 0.846811
-0.456007 0.132029 0.880128 -0.847788 0.403720 0.343896
0.760150 -0.045407 0.648159 0.898034 0.018153 0.439551
-0.176152 0.554128 0.813580 -0.263686 0.762009 0.591449
-0.282337 0.146763 0.948023 -0.868841 0.214325 0.446297
0.380850 0.157476 0.911128 0.784742 0.150107 0.601371
-0.573604 0.415258 0.706073 -0.375394 0.368053 0.850656
-0.582860 0.480515 0.655270 -0.204925 0.398209 0.894111
-0.047569 0.226265 0.972904 0.820189 0.469243 0.327263
-0.677141 0.007821 0.735812 -0.419929 0.907405 -0.016621
-0.631967 -0.039790 0.773973 -0.895599 0.019622 0.444429
-0.406409 0.082906 0.909922 -0.888395 0.168051 0.427216
-0.386253 0.007307 0.922364 -0.943991 0.249648 0.215769
0.761237 -0.103179 0.640213 0.889015 -0.062259 0.453625
0.649277 0.057169 0.758401 0.885398 0.181795 0.427809
0.279284 0.540648 0.793536 0.012944 0.867053 0.498048
-0.426235 0.772812 0.470197 0.472421 0.479460 0.739552
-0.044622 0.432070 0.900736 0.642487 0.422291 0.639438
-0.568762 0.555243 0.606808 0.177113 0.487055 0.855224
0.116835 0.549480 0.827298 -0.426892 0.611232 0.666453
-0.009409 0.614850 0.788588 -0.234562 0.625598 0.744048
0.230246 0.605088 0.762139 0.008891 0.617019 0.786898
-0.221322 0.477919 0.850065 0.584458 0.569025 0.578463
0.045499 0.127530 0.990791 -0.974596 0.091304 0.204516
-0.904687 0.104197 0.413140 -0.072318 0.184019 0.980259
-0.916802 0.180228 0.356359 0.090952 0.233833 0.968013
-0.537705 0.249302 0.805432 -0.661297 0.275550 0.697680
-0.150530 0.148617 0.977371 -0.896883 0.287323 0.336223
0.004169 0.082777 0.996559 -0.980850 0.121563 0.152169
-0.791329 0.156450 0.591034 -0.365164 0.161882 0.916760
-0.015593 0.076345 0.996960 -0.956977 0.252803 0.142429
-0.257785 0.205404 0.944117 -0.813153 0.396626 0.425993
0.570427 -0.333970 0.750385 0.796116 0.507617 -0.329429
-0.083196 0.291343 0.952994 0.863742 0.213583 0.456434
0.402098 0.348405 0.846718 0.386454 0.350553 0.853092
-0.454364 0.366010 0.812152 -0.512029 0.376026 0.772289
-0.885217 0.360007 0.294595 0.051675 0.195146 0.979412
-0.560330 0.365422 0.743302 -0.359398 0.349459 0.865281
-0.958424 0.171780 0.227847 0.252571 0.223676 0.941370
-0.805735 0.269992 0.527159 0.007748 0.310230 0.950630
0.754033 0.077226 0.652281 0.300637 0.953328 0.027991
0.210213 0.237157 0.948455 0.800382 0.312726 0.511460
0.361729 0.308735 0.879679 0.604166 0.314505 0.732168
-0.717209 0.401696 0.569431 -0.159189 0.316734 0.935061
-0.221262 0.330081 0.917654 -0.618797 0.275336 0.735718
-0.841113 0.373184 0.391487 0.151186 0.287881 0.945657
-0.100002 0.260644 0.960242 -0.785995 0.431053 0.443177
-0.711643 0.416332 0.565890 -0.660546 0.347492 0.665529
0.477561 0.369478 0.797133 0.095115 0.944095 0.315653
0.036039 0.157800 0.986813 0.428752 0.886364 0.174728
0.801653 0.394998 0.448697 0.163154 0.239069 0.957197
0.904910 0.354261 0.235874 -0.199809 0.200535 0.959094
-0.523140 0.643678 0.558572 -0.433609 0.462568 0.773314
0.168774 0.073206 0.982932 -0.147486 0.986366 0.073001
0.371335 0.159955 0.914617 0.376076 0.912598 0.160414
0.370061 0.531507 0.761942 0.333033 0.516851 0.788640
0.119071 0.116737 0.985999 -0.377445 0.917821 0.123047
0.765800 0.395074 0.507412 0.455945 0.863123 0.217100
-0.103452 0.573684 0.812517 0.250327 0.748518 0.614050
0.151511 0.780291 0.606787 0.218096 0.743621 0.632030
-0.616550 0.448554 0.647043 -0.259475 0.910116 0.323050
0.000581 0.999691 0.024868 0.918760 0.040198 0.392764
0.634006 0.716746 0.290365 0.544234 0.794250 0.270142
-0.573775 0.537361 0.618082 0.114594 0.896474 0.428021
0.121600 0.928430 0.351043 -0.815262 0.521160 0.252467
-0.942274 0.231570 0.241858 0.280998 0.931905 0.229331
0.869138 0.476736 0.131612 0.163031 0.969924 0.180746
-0.849319 0.370788 0.375731 0.114555 0.957864 0.263391
-0.846397 0.432397 0.310879 -0.430208 0.890909 0.145606
-0.928133 0.309364 0.207033 -0.094281 0.986018 0.137401
0.500689 0.843238 0.195603 0.572778 0.798130 0.186850
-0.705030 0.689592 0.165519 -0.848102 0.406095 0.340309
-0.070443 0.959240 0.273674 0.691316 0.354798 0.629445
0.450021 0.619931 0.642780 0.207096 0.854552 0.476291
-0.714514 0.415483 0.562889 -0.502698 0.820904 0.270945
-0.889874 0.201417 0.409336 -0.255114 0.964406 0.069555
-0.956623 0.005988 0.291267 -0.074933 0.996999 -0.019447
-0.996955 0.050781 0.059171 -0.045048 0.998969 0.005580
0.732172 0.448250 0.512831 -0.291143 0.879228 0.377086
-0.694644 0.664662 0.275127 -0.763629 0.358950 0.536681
-0.079893 0.995825 0.044164 0.245179 0.045097 0.968428
-0.503310 0.533177 0.680001 -0.496908 0.692112 0.523511
-0.499033 0.810180 0.307530 0.498031 0.307447 0.810828
-0.648992 0.724098 0.233435 -0.544303 0.197159 0.815391
-0.443202 0.705107 0.553531 -0.175361 0.452337 0.874437
0.763262 0.632298 0.132781 0.593930 0.075678 0.800949
-0.520624 0.136739 0.842765 -0.653847 0.737075 0.170895
-0.377967 0.283791 0.881251 -0.623075 0.687567 0.372865
0.384857 0.042131 0.922014 0.865154 0.474278 0.162998
-0.982353 0.110280 0.151069 -0.943175 -0.024439 0.331397
-0.753738 0.522019 0.399218 -0.638734 0.271733 0.719848
-0.582442 0.144240 0.799973 -0.526380 0.839829 0.132710
-0.707702 -0.185237 0.681795 -0.736984 0.651249 -0.180913
-0.918475 0.177026 0.353645 -0.903118 0.406336 0.138814
-0.901913 0.389151 -0.187389 -0.901669 -0.187571 0.389628
-0.594094 -0.170581 0.786101 -0.989148 0.011064 0.146508
-0.443129 -0.260518 0.857769 -0.885158 0.397538 -0.241783
-0.881556 -0.068964 0.467015 -0.966920 0.248964 0.055527
-0.951879 0.285703 -0.110908 -0.869245 -0.184905 0.458501
-0.872382 -0.286669 0.395942 -0.924497 0.288635 -0.248990
-0.839192 0.386513 -0.382575 -0.600151 -0.395679 0.695167
-0.723963 -0.268641 0.635381 -0.896771 0.386481 -0.215486
-0.908726 0.398374 0.124559 -0.865718 0.066959 0.496033
-0.783512 0.006146 0.621346 -0.937800 0.286446 0.196163
-0.826507 0.227949 0.514709 -0.135986 0.982200 0.129584
-0.739677 0.670301 -0.059790 -0.752230 -0.056264 0.656494
0.966559 0.113937 0.229744 0.888476 0.457908 -0.030522
0.852464 0.507862 0.124017 0.887082 0.174062 0.427537
-0.966878 0.141060 0.212716 -0.774686 -0.072703 0.628153
0.482004 0.846456 0.226242 -0.587061 0.229288 0.776393
-0.933860 0.158319 0.320687 -0.623556 0.781256 -0.028577
-0.699795 0.287073 0.654123 -0.240792 0.950894 0.194472
-0.888449 -0.193259 0.416304 -0.932375 0.325939 -0.156335
-0.870189 0.489988 -0.051791 -0.972893 0.155187 0.171454
-0.735929 0.632699 -0.241039 -0.685076 -0.245938 0.685701
0.216285 0.242464 0.945744 0.733468 0.556974 0.389621
0.244915 0.888801 0.387362 -0.125543 0.376406 0.917909
-0.735438 -0.152445 0.660220 -0.986856 0.084403 0.137813
0.430558 0.121301 0.894375 0.725693 0.660107 0.193982
-0.419569 0.903218 -0.090331 -0.427477 -0.090300 0.899505
0.653492 0.165375 0.738647 0.831177 0.309991 0.461574
0.298055 0.026399 0.954184 0.798952 0.594748 0.089164
0.169137 0.078177 0.982487 0.381541 0.920427 0.085091
-0.238677 0.225867 0.944467 -0.803764 0.300192 0.513662
0.568347 0.654369 0.498782 0.144515 0.372075 0.916884
-0.456194 0.023732 0.889564 -0.204999 0.978600 0.017803
0.541973 0.057192 0.838448 0.217828 0.975052 0.042712
0.294866 0.532930 0.793120 0.153205 0.537090 0.829495
0.158215 0.393635 0.905549 -0.776566 0.296986 0.555648
0.120853 0.460549 0.879369 -0.628673 0.458294 0.628281
0.137763 0.507357 0.850653 0.412598 0.598401 0.686789
-0.392162 0.484749 0.781810 -0.144799 0.892833 0.426477
0.239750 -0.071989 0.968162 0.820756 0.569033 -0.050612
0.366763 0.285092 0.885555 0.683661 0.584503 0.436995
0.749152 0.176281 0.638511 -0.145947 0.977972 0.149234
0.741253 0.376424 0.555741 -0.513059 0.777496 0.363689
-0.029538 0.618560 0.785182 -0.212167 0.634750 0.743019
0.471494 0.517702 0.713917 -0.617558 0.563846 0.548360
0.439481 0.578336 0.687302 -0.268611 0.613612 0.742515
0.391487 0.641485 0.659723 -0.230708 0.595967 0.769153
0.569586 0.649066 0.504266 -0.510600 0.493228 0.704282
0.213566 0.671800 0.709277 0.024005 0.616026 0.787360
0.108174 0.883669 0.455442 -0.167385 0.461502 0.871205
0.439408 0.022822 0.897998 0.503364 0.863638 0.027468
-0.106484 0.311305 0.944325 -0.742806 0.244701 0.623186
-0.067775 0.292961 0.953719 -0.784965 0.338312 0.519013
0.339792 0.675819 0.654072 0.334094 0.632402 0.698891
-0.245459 0.251968 0.936089 0.900209 0.321586 0.293610
0.658572 0.379768 0.649661 0.016618 0.404021 0.914599
0.038046 0.408261 0.912072 -0.674384 0.410281 0.613902
-0.223413 0.479283 0.848749 -0.404331 0.494410 0.769465
-0.388974 0.440630 0.809040 -0.193174 0.464513 0.864240
-0.864191 0.254711 0.433931 0.372414 0.391763 0.841326
-0.341003 0.546935 0.764578 -0.175187 0.527138 0.831526
-0.479907 0.560711 0.674754 -0.239257 0.462471 0.853743
-0.202876 0.544547 0.813824 -0.267094 0.548857 0.792097
0.116485 0.494987 0.861057 -0.569532 0.487230 0.661997
-0.118987 0.430786 0.894576 -0.444620 0.730352 0.518555
-0.207515 0.877804 0.431739 -0.264670 0.442536 0.856803
0.545129 -0.047156 0.837025 0.169491 0.984381 -0.047608
0.281257 0.545822 0.789286 0.253263 0.540944 0.802021
-0.332392 0.065025 0.940897 0.040093 0.997275 0.061921
0.372797 0.818697 0.436757 -0.478451 0.456024 0.750417
0.603130 0.222702 0.765923 -0.237779 0.950100 0.201920
-0.651417 0.059765 0.756363 0.057859 0.996951 0.052360
0.818872 0.310321 0.482856 -0.285827 0.919365 0.270317
0.349976 0.809215 0.471898 0.290357 0.833387 0.470275
-0.459778 0.784904 0.415366 -0.533664 0.715721 0.450496
0.198835 0.967175 0.158232 0.883755 0.402108 0.239347
-0.833508 0.463931 0.300055 -0.004566 0.961937 0.273233
-0.360535 0.859854 0.361478 -0.560219 0.731565 0.388545
-0.700475 0.678068 0.222615 -0.230206 0.932625 0.277879
-0.961449 0.258641 0.093389 0.037759 0.987529 0.152840
-0.137119 0.969930 0.201080 0.926133 0.266874 0.266562
-0.803958 0.557713 0.206416 -0.698264 0.700264 0.148518
-0.854266 0.289053 0.432063 -0.600491 0.791641 0.112762
-0.950739 0.118657 0.286386 -0.157806 0.987245 0.021060
-0.677532 0.459878 0.573988 -0.589091 0.726246 0.354313
-0.856736 0.333997 0.393000 -0.443805 0.887816 0.121739
0.477454 0.708879 0.519161 0.129239 0.871809 0.472490
-0.691582 0.610395 0.386175 -0.720956 0.468376 0.510731
-0.807285 0.096029 0.582296 -0.525500 0.850532 0.021108
0.651763 -0.018896 0.758187 0.260587 0.964916 -0.032105
-0.562495 0.520715 0.642227 -0.559328 0.650457 0.513867
0.762454 0.349957 0.544237 -0.354496 0.880612 0.314413
-0.590776 0.556946 0.583777 -0.589656 0.547267 0.593974
0.692854 0.137262 0.707893 0.699568 0.700701 0.140084
-0.585365 0.631413 0.508591 -0.549615 0.456046 0.699961
-0.304081 0.151025 0.940599 -0.590460 0.784196 0.190771
0.925467 0.378408 0.017832 0.942613 0.047592 0.330477
-0.723095 0.685277 -0.086768 -0.647989 -0.098842 0.755209
-0.591428 0.798330 0.113499 -0.165253 0.087310 0.982379
-0.859020 0.186645 0.476705 -0.737485 0.669333 0.090055
-0.903263 0.033055 0.427812 -0.481861 0.873536 -0.068880
-0.839613 0.539705 -0.061393 -0.970938 0.160545 0.177496
0.955580 -0.186373 0.228325 0.733695 0.612543 -0.294078
0.905047 0.425309 0.001533 0.955833 0.095286 0.278037
-0.858206 0.488782 -0.156762 -0.924101 -0.108505 0.366421
-0.699285 0.637679 -0.323055 -0.829077 -0.303083 0.469864
-0.988062 -0.054479 0.144104 -0.904297 0.383910 -0.186709
-0.901141 0.380120 -0.208456 -0.980696 -0.100007 0.168031
-0.942006 0.093144 0.322411 -0.902913 0.429006 0.026492
-0.858987 0.406799 0.310896 -0.853323 0.435278 0.287008
0.813495 -0.179788 0.553085 0.587993 0.782255 -0.205771
0.900216 0.150309 0.408679 0.698551 0.715423 0.014021
-0.677052 0.399126 0.618303 -0.381037 0.883605 0.272126
-0.926106 0.295122 0.235013 -0.877308 0.467422 0.108848
0.771170 0.563650 0.295965 0.805378 0.383377 0.452094
-0.161447 0.034058 0.986293 -0.546697 0.836047 0.046343
-0.404139 0.405872 0.819719 0.152340 0.915248 0.372980
-0.392185 0.425904 0.815351 0.131331 0.911356 0.390107
-0.833572 0.063848 0.548708 0.107629 0.992248 0.062134
-0.651014 0.756276 0.065022 -0.900011 0.312168 0.304189
0.753285 0.565722 0.335441 0.683350 0.264883 0.680346
0.639880 0.764614 0.076936 0.099548 0.055838 0.993465
0.556105 0.512126 0.654580 0.564450 0.530905 0.632089
-0.383324 0.305475 0.871635 -0.383235 0.871681 0.305457
0.484429 0.518416 0.704679 0.509540 0.559711 0.653524
0.081839 0.036682 0.995970 0.513177 0.857107 0.044916
-0.321698 0.275555 0.905859 -0.205105 0.942394 0.264243
0.620120 0.280309 0.732719 0.604237 0.748740 0.272555
0.797717 0.218478 0.562063 0.406756 0.907196 0.107446
-0.033611 0.824741 0.564512 -0.090032 0.570096 0.816630
0.522794 0.700200 0.486216 0.342423 0.397984 0.851090
0.742450 0.483797 0.463366 0.145212 0.946923 0.286794
0.792093 0.364650 0.489509 -0.217351 0.930688 0.294243
-0.064808 0.642417 0.763610 -0.113771 0.641671 0.758495
-0.031514 0.620794 0.783340 -0.203434 0.624337 0.754201
-0.262597 0.663168 0.700893 0.113292 0.630262 0.768072
0.540770 0.488928 0.684483 -0.624697 0.598018 0.502123
-0.376493 0.516944 0.768779 0.478800 0.689950 0.542880
0.153905 0.641141 0.751832 0.176252 0.730085 0.660235
0.425378 0.895150 0.133266 -0.048927 0.122515 0.991260
-0.359525 0.627426 0.690708 0.201218 0.618825 0.759320
-0.449610 0.665768 0.595485 0.243354 0.774022 0.584524
-0.003238 0.515191 0.857069 0.128326 0.841754 0.524388
0.483095 0.432595 0.761236 -0.800217 0.388598 0.456777
0.088078 0.603554 0.792442 0.214018 0.617104 0.757218
0.250852 0.602449 0.757713 -0.379444 0.655455 0.652995
0.405552 0.574224 0.711192 -0.459914 0.662890 0.590809
0.473689 0.557995 0.681367 -0.586185 0.559716 0.585752
-0.505688 0.534122 0.677490 0.644107 0.519957 0.561044
0.420545 0.534914 0.732809 -0.635698 0.500735 0.587497
0.383189 0.343851 0.857282 -0.448849 0.821551 0.351551
0.522703 0.748323 0.408405 0.591882 0.659206 0.463814
0.494331 0.709541 0.502184 -0.407045 0.483361 0.775034
0.088418 0.933999 0.346161 -0.724014 0.478646 0.496691
-0.357770 0.725576 0.587827 -0.114209 0.835299 0.537802
-0.889821 0.169864 0.423514 0.223259 0.961366 0.161031
0.681091 0.687584 0.251682 0.449139 0.862419 0.233468
0.949748 0.235613 0.206069 -0.134928 0.973989 0.182041
-0.059144 0.977972 0.200181 -0.895637 0.431687 0.107151
-0.929056 0.318705 0.187835 -0.210159 0.972862 0.096811
0.721360 0.641514 0.260959 0.263476 0.926967 0.267043
0.750041 0.467498 0.467850 0.038244 0.952940 0.300736
-0.876108 0.365238 0.314700 -0.401022 0.909055 0.113138
-0.383720 0.904515 0.186040 -0.781238 0.584293 0.219702
0.815643 0.519687 0.254266 0.163366 0.957561 0.237464
-0.392122 0.913317 0.109967 -0.880523 0.393161 0.264772
-0.448652 0.886298 0.114834 -0.832588 0.268443 0.484496
0.416387 0.834806 0.360169 0.571191 0.717652 0.398394
0.532994 0.564715 0.630091 0.189498 0.889823 0.415097
-0.563836 0.782980 0.262736 -0.746196 0.528407 0.404941
-0.357480 0.932288 0.055208 -0.685445 0.096118 0.721753
-0.617844 0.682866 0.389823 -0.676831 0.532826 0.507933
0.623419 0.426634 0.655235 0.354271 0.881130 0.313212
-0.330298 0.943488 0.027077 -0.616726 0.048879 0.785659
0.227497 0.529937 0.816953 -0.280775 0.791732 0.542518
0.374181 0.906250 -0.196724 0.939201 -0.150287 0.308732
0.844362 0.493078 -0.209588 0.997196 0.016651 0.072964
-0.597248 -0.085737 0.797461 -0.539128 0.837472 -0.089345
-0.140346 0.550808 0.822748 -0.318141 0.689577 0.650592
-0.857020 0.320335 0.403612 0.066949 0.973297 0.219570
0.058630 0.995388 0.075932 -0.956653 0.098644 0.274016
-0.956811 0.231852 0.175377 -0.271382 0.962090 0.027112
0.943497 0.007860 0.331287 0.629863 0.766562 -0.125119
-0.371291 0.928441 0.011864 -0.258785 0.009675 0.965886
-0.950447 -0.108798 0.291229 -0.717625 0.661165 -0.218803
-0.865138 0.490647 -0.103935 -0.983795 0.145922 0.104185
-0.895485 -0.365915 0.253403 -0.480048 0.791682 -0.377879
-0.985060 -0.072946 0.156000 -0.723597 0.645095 -0.245477
-0.869707 0.089407 0.485402 -0.605621 0.795658 -0.012274
-0.486940 0.842312 0.231084 -0.760487 0.540787 0.359456
-0.827157 0.112409 0.550614 -0.414075 0.909895 0.025160
-0.895974 0.301068 0.326480 -0.109255 0.982925 0.148058
-0.378049 0.563100 0.734845 -0.414029 0.651874 0.635327
-0.408385 0.686496 0.601618 -0.368444 0.550850 0.748875
-0.771221 0.532429 0.348908 -0.657814 0.711675 0.246574
-0.369491 0.156544 0.915953 -0.112112 0.983027 0.145219
-0.581093 0.526042 0.620975 -0.560537 0.671324 0.484895
-0.706623 0.654622 0.268615 -0.702187 0.660517 0.265802
-0.706627 0.311651 0.635258 -0.011638 0.973163 0.229821
0.824887 0.513098 0.237259 0.799550 0.563843 0.206882
-0.368802 0.124653 0.921112 0.226861 0.966347 0.121275
-0.406402 0.343666 0.846600 0.252164 0.910771 0.326971
0.657474 0.678990 0.326651 0.611389 0.296714 0.733597
-0.320540 0.541079 0.777488 -0.375165 0.717484 0.586914
0.331617 0.499943 0.800055 0.435753 0.683186 0.585983
0.032259 0.479353 0.877029 0.336225 0.773380 0.537435
0.354448 0.362625 0.861899 0.534385 0.724433 0.435464
0.470487 0.661684 0.583795 0.346227 0.478378 0.807020
-0.267969 0.452344 0.850634 -0.250670 0.857977 0.448374
0.268657 0.610553 0.745015 0.273019 0.614192 0.740425
0.796136 -0.058235 0.602309 0.465438 0.879941 -0.095243
-0.199080 0.409052 0.890530 0.473221 0.753246 0.456817
-0.117486 0.655917 0.745634 0.136097 0.735955 0.663210
0.034394 0.118364 0.992374 0.079292 0.989762 0.118679
0.892343 0.184881 0.411756 0.433237 0.900677 0.032974
0.857077 0.373098 0.355269 -0.194267 0.937679 0.288128
-0.114309 0.918465 0.378623 0.749819 0.542452 0.378835
-0.042846 0.926742 0.373248 0.728881 0.572660 0.375224
0.699216 0.604955 0.380955 0.024384 0.927721 0.372478
-0.162867 0.667699 0.726397 0.156652 0.730309 0.664912
-0.318537 0.578854 0.750641 0.293141 0.766713 0.571157
0.274163 0.812233 0.514891 -0.013013 0.479580 0.877402
0.244839 0.029318 0.969120 0.093924 0.995178 0.028279
-0.109671 0.515651 0.849751 0.183485 0.829937 0.526819
0.457447 0.276308 0.845220 0.208074 0.946960 0.244891
-0.379503 0.561647 0.735208 -0.049522 0.875235 0.481157
0.334230 0.828450 0.449400 -0.639175 0.513008 0.572955
0.312976 0.691286 0.651283 -0.358696 0.671729 0.648164
0.667991 0.539362 0.512715 -0.418022 0.765728 0.488792
0.267431 0.721494 0.638692 -0.088661 0.772008 0.629399
-0.315722 0.764291 0.562298 -0.003091 0.811980 0.583677
-0.713396 0.502839 0.488077 0.618092 0.609659 0.496265
0.377480 0.670789 0.638398 -0.302338 0.708053 0.638163
0.184203 0.775051 0.604454 0.222299 0.752658 0.619749
-0.627345 0.320990 0.709509 0.171867 0.946564 0.272906
-0.009968 0.902365 0.430857 -0.570666 0.593241 0.567808
0.500071 0.673983 0.543761 0.248887 0.858423 0.448516
-0.513992 0.669484 0.536286 -0.185050 0.876470 0.444473
0.738476 0.593395 0.320211 0.471741 0.849731 0.235412
-0.723529 0.593560 0.352410 -0.227373 0.928458 0.293713
-0.413743 0.853685 0.316288 -0.606223 0.717084 0.343926
0.818249 0.557866 0.138760 0.181219 0.960023 0.213344
-0.773500 0.529992 0.347573 -0.012708 0.947233 0.320295
0.945546 0.289283 0.149190 0.097936 0.988396 0.116109
-0.838715 0.459312 0.292556 -0.122134 0.965785 0.228787
-0.847002 0.517622 0.121063 -0.188623 0.964303 0.185854
-0.739493 0.596528 0.311937 -0.404179 0.883030 0.238530
-0.961376 0.065332 0.267372 0.077375 0.995032 0.062650
-0.866334 -0.013800 0.499275 -0.029741 0.999446 -0.014930
-0.907185 0.323022 0.269576 -0.177223 0.975665 0.129109
-0.660530 0.702394 0.265223 -0.609867 0.752158 0.249641
0.832463 0.439000 0.338060 0.023133 0.965670 0.258740
-0.179124 0.979717 0.089831 -0.786765 0.159211 0.596366
0.800444 0.464386 0.378992 0.013559 0.958309 0.285411
-0.299444 0.906746 0.296892 0.789498 0.342190 0.509508
-0.413441 0.850140 0.326082 -0.665164 0.514100 0.541533
0.728888 0.506879 0.460213 0.386232 0.881828 0.270564
-0.498819 0.285613 0.818294 -0.314752 0.915209 0.251643
-0.974160 -0.147934 0.170666 -0.394931 0.890476 -0.226014
-0.979546 0.146164 0.138299 -0.797950 0.592835 -0.108733
-0.912472 0.404838 -0.059175 -0.935551 0.351648 -0.032993
-0.996470 0.068144 0.049025 -0.632729 0.747728 -0.201385
-0.212340 0.843737 0.492971 -0.407923 0.743449 0.529984
-0.416128 0.886801 0.201050 -0.769883 0.581656 0.262596
0.959122 0.266620 0.094856 0.382539 0.923793 -0.016448
0.851587 0.018119 0.523900 0.535090 0.842928 -0.056128
-0.093301 0.155829 0.983368 -0.514769 0.837604 0.182844
-0.840019 0.248612 0.482246 0.294088 0.928258 0.227705
-0.791332 0.464565 0.397459 0.199676 0.913399 0.354728
-0.757694 0.498715 0.420931 0.223829 0.893550 0.389191
-0.320775 0.809023 0.492530 -0.262546 0.473551 0.840725
-0.686446 0.382177 0.618653 0.290799 0.897331 0.332012
0.844126 0.062284 0.532515 0.504593 0.863125 -0.020056
-0.088361 0.044601 0.995090 -0.099058 0.994079 0.044650
0.498386 0.816784 0.290648 -0.420536 0.284417 0.861543
-0.494279 0.609072 0.620258 -0.098564 0.885144 0.454758
0.706100 0.326024 0.628595 0.604066 0.753809 0.258603
-0.245279 0.596687 0.764070 -0.280115 0.725875 0.628204
0.358766 0.635075 0.684081 0.357854 0.631988 0.687409
0.532810 0.538164 0.653064 0.544093 0.588894 0.597634
0.041892 0.386643 0.921277 0.477264 0.746820 0.463119
-0.076997 0.159065 0.984261 -0.138365 0.977336 0.160217
0.244749 0.394610 0.885653 0.381825 0.819489 0.427372
0.268152 0.017703 0.963214 0.618345 0.785029 0.037128
0.630140 -0.075100 0.772841 0.594083 0.800548 -0.078669
-0.003853 0.033893 0.999418 0.495502 0.867766 0.038222
0.003947 0.669207 0.743065 0.073192 0.720414 0.689671
0.899188 0.313553 0.305199 0.838206 0.525306 0.146504
-0.362225 0.462922 0.809010 0.368531 0.805453 0.464144
0.042678 0.173219 0.983958 -0.002137 0.984910 0.173052
0.945807 0.295296 0.135086 0.830418 0.557071 -0.008886
0.990686 -0.064345 0.120008 0.409858 0.891412 -0.193394
-0.986291 -0.138604 0.089548 -0.177265 0.972613 -0.150335
-0.887179 0.459774 -0.039005 -0.847983 0.526408 -0.061799
0.463741 0.863765 -0.197114 0.999332 0.004678 0.036242
0.780230 0.625336 0.014020 0.731806 0.681487 0.005897
0.680390 0.718979 0.141907 0.597582 0.789815 0.138159
-0.918295 0.332378 0.215079 0.218392 0.937543 0.270774
0.375233 0.834398 0.403708 -0.845643 0.452118 0.283685
-0.526880 0.326647 0.784665 0.345398 0.886370 0.308298
-0.537578 0.657523 0.527895 -0.108784 0.889992 0.442810
-0.345344 0.842027 0.414400 -0.463581 0.776200 0.427325
0.599567 0.694117 0.398399 -0.051357 0.882521 0.467461
0.032724 0.840421 0.540945 -0.440765 0.743571 0.502820
0.618928 0.623173 0.478105 0.049230 0.911014 0.409427
0.906376 0.243944 0.344925 -0.102766 0.978710 0.177666
-0.532986 0.552849 0.640534 0.111108 0.886850 0.448500
0.950130 0.214062 0.226784 0.018062 0.993271 0.114400
-0.753498 0.549459 0.361020 -0.205553 0.938444 0.277615
-0.238025 0.962347 0.131271 -0.889451 0.436692 0.134819
-0.668955 0.718653 0.189835 -0.456826 0.867289 0.197787
0.881622 0.406711 0.239434 -0.129584 0.950583 0.282135
-0.526842 0.814604 0.242605 -0.508810 0.825640 0.243787
0.948036 0.243394 0.204906 -0.152868 0.969160 0.193286
-0.211548 0.932789 0.291809 -0.722708 0.504270 0.472657
-0.602322 0.734904 0.311646 -0.538490 0.788661 0.296718
0.969138 0.088901 0.229933 0.010330 0.998857 0.046660
-0.275782 0.916163 0.290845 -0.654062 0.419870 0.629215
0.107314 0.988360 0.107834 -0.863978 0.130023 0.486452
0.907295 0.413248 0.077727 0.592602 0.805427 -0.010478
-0.972552 0.224421 0.061458 -0.656271 0.745484 -0.116457
-0.873627 0.221290 0.433367 -0.386757 0.919615 0.068757
-0.361693 0.884425 0.294909 0.654957 0.320099 0.684520
-0.034688 0.972408 0.230691 0.810146 0.336062 0.480340
-0.551776 0.528368 0.645268 -0.332577 0.854135 0.399808
-0.454691 0.862316 -0.222862 -0.983138 -0.104481 0.150078
0.192695 0.649832 0.735246 0.030344 0.798665 0.601010
-0.762855 0.379686 0.523345 0.182927 0.936293 0.299820
-0.847363 0.501010 0.175967 -0.357634 0.924078 0.134826
0.326623 0.940177 -0.096879 0.852547 -0.060563 0.519129
-0.323186 0.693596 0.643797 -0.326640 0.661646 0.674930
0.226039 0.180077 0.957329 -0.222072 0.958284 0.179933
-0.684153 0.507638 0.523677 0.418467 0.782842 0.460482
-0.452224 0.708368 0.541949 -0.002524 0.855544 0.517725
-0.154066 0.532561 0.832252 -0.172460 0.826027 0.536598
-0.121951 0.991426 0.046939 0.222513 0.047520 0.973771
-0.686142 0.440164 0.579192 0.521941 0.740843 0.422763
0.263506 0.067956 0.962261 0.257627 0.963863 0.067795
-0.410867 0.481249 0.774330 0.426599 0.763683 0.484563
-0.164620 0.736247 0.656385 -0.148284 0.643607 0.750854
-0.313171 0.339063 0.887108 0.557610 0.743333 0.369496
0.544348 0.450261 0.707779 0.568976 0.668922 0.478341
0.273646 0.243096 0.930603 0.353484 0.900853 0.252017
0.219279 0.306644 0.926221 0.456336 0.818828 0.348250
-0.198354 0.931726 0.304209 -0.074996 0.297807 0.951676
0.005431 0.424318 0.905497 0.340369 0.816620 0.466133
0.024181 0.323796 0.945818 0.277807 0.898355 0.340266
0.939950 -0.134576 0.313661 0.767605 0.600372 -0.224355
0.997613 0.038127 0.057580 0.824264 0.525344 -0.211194
-0.025758 0.773429 0.633360 -0.014124 0.632619 0.774334
-0.189175 0.083052 0.978425 0.316370 0.944842 0.084762
-0.952976 -0.198967 0.228580 -0.628449 0.718564 -0.297855
-0.823093 0.542204 -0.168916 -0.992445 0.071164 0.099942
0.954705 0.276635 -0.109598 0.908995 0.385382 -0.158771
0.837874 0.543330 -0.052533 0.911107 0.412167 -0.001690
-0.592172 0.293662 0.750397 0.508202 0.811323 0.288938
-0.166468 0.094177 0.981539 0.316479 0.943661 0.096670
0.958948 0.200210 0.200834 0.452121 0.891361 -0.032600
0.421724 0.889153 0.177637 0.739809 0.649112 0.177023
-0.870587 0.384176 0.307386 0.248359 0.916885 0.312472
0.282804 0.510624 0.811964 0.185411 0.854629 0.485007
0.419791 0.680447 0.600639 0.414554 0.693461 0.589286
-0.041545 0.633654 0.772500 0.090337 0.759967 0.643654
0.728787 0.385805 0.565707 0.318092 0.918191 0.236099
-0.512865 0.287725 0.808816 0.313678 0.910011 0.271085
-0.724574 0.574466 0.380765 -0.225103 0.928467 0.295428
-0.892702 0.380405 0.241612 0.159031 0.947472 0.277501
0.205679 0.900632 0.382830 0.561454 0.746182 0.357746
0.854918 0.399188 0.331307 -0.291525 0.895439 0.336455
0.621864 0.671762 0.402519 0.034518 0.907019 0.419674
0.418191 0.799946 0.430351 -0.813511 0.473160 0.338111
-0.861844 0.414030 0.292925 0.393767 0.836221 0.381682
-0.819027 0.490845 0.297097 0.361013 0.829285 0.426563
-0.625827 0.363577 0.690038 0.261291 0.911032 0.318979
0.508029 0.840666 0.187581 0.780411 0.561485 0.275125
0.791443 0.589004 0.163376 0.536196 0.835010 0.123504
-0.797938 0.511330 0.319117 -0.219312 0.946482 0.236801
-0.090231 0.986206 0.138764 0.971228 0.188901 0.145025
0.965256 0.254019 0.061285 -0.088012 0.980982 0.172997
-0.888818 0.356678 0.287722 0.071488 0.969700 0.233605
-0.453425 0.780572 0.430248 -0.396094 0.816619 0.419813
-0.616933 0.732009 0.289062 -0.524087 0.806658 0.273194
0.837914 0.506555 0.203228 0.056591 0.964238 0.258927
0.963113 0.259104 0.072654 0.045704 0.992518 0.113218
-0.747915 0.380705 0.543770 -0.138932 0.960385 0.241575
-0.158551 0.947633 0.277225 -0.770525 0.543198 0.333508
0.945651 0.207669 0.250235 -0.040833 0.990301 0.132803
-0.080940 0.992849 0.087751 0.914856 0.108140 0.389031
-0.491371 0.704927 0.511500 -0.414822 0.782491 0.464360
-0.978294 0.194613 0.071175 -0.294372 0.955305 -0.027153
-0.981735 -0.059033 0.180865 -0.246196 0.961389 -0.122957
-0.527936 0.842260 -0.109007 -0.968457 0.249178 0.001259
-0.790097 0.609770 -0.062665 -0.823581 0.564602 -0.054220
-0.839473 0.541389 -0.046725 -0.888819 0.457935 -0.017218
0.295267 0.911885 0.285102 0.711309 0.487189 0.506642
-0.376266 0.591143 0.713424 -0.237424 0.825590 0.511890
0.698636 0.167175 0.695672 0.123379 0.985371 0.117568
-0.776393 0.217010 0.591709 0.348736 0.913670 0.208785
-0.785166 0.528427 0.322925 -0.278232 0.931923 0.232610
0.704165 0.693225 0.153593 0.686454 0.711654 0.149432
0.808683 0.102385 0.579267 0.344763 0.938237 0.029145
-0.215319 0.493316 0.842780 -0.093022 0.874855 0.475369
0.504569 0.056547 0.861518 0.066457 0.996650 0.047661
-0.477013 0.640850 0.601473 0.017561 0.869931 0.492861
0.736358 0.543589 0.402850 0.678056 0.660320 0.322827
-0.080578 0.971887 0.221230 -0.159803 0.223661 0.961477
0.478718 0.472362 0.740070 0.374760 0.826064 0.420918
-0.359509 0.669074 0.650457 0.154969 0.794130 0.587659
-0.268365 0.744622 0.611162 -0.054647 0.806355 0.588902
0.814838 -0.003092 0.579680 0.365630 0.929394 -0.050425
0.298712 0.049624 0.953052 0.243284 0.968751 0.048306
-0.547791 0.433477 0.715558 0.543122 0.719504 0.432820
0.697064 0.241225 0.675213 0.505698 0.844684 0.175437
-0.114301 0.437655 0.891848 -0.151182 0.884535 0.441296
-0.268040 0.468661 0.841731 0.501254 0.689831 0.522377
0.577744 0.433657 0.691486 0.556932 0.719319 0.415219
0.256832 0.564916 0.784160 0.281293 0.765244 0.579030
-0.182607 0.171936 0.968035 0.745921 0.635353 0.199821
0.330616 0.185236 0.925408 0.452094 0.869226 0.200140
-0.005455 0.016893 0.999842 -0.091575 0.995654 0.016965
0.766101 0.630945 0.122467 0.268072 0.060651 0.961488
0.758585 0.012134 0.651461 0.822738 0.566710 0.044054
0.020138 0.242029 0.970060 -0.054985 0.968620 0.242387
0.210949 0.893733 0.395906 0.114270 0.386584 0.915148
-0.350883 0.211303 0.912268 0.391841 0.894925 0.213472
-0.993938 -0.051961 0.096892 -0.907385 0.366181 -0.206309
-0.821855 -0.419155 0.385828 -0.581053 0.695483 -0.422706
-0.011355 0.773203 0.634057 -0.135502 0.669538 0.730313
0.864127 0.501058 -0.047178 0.927530 0.373611 0.010112
0.966043 -0.015082 0.257940 0.436322 0.889279 -0.137136
-0.143055 0.657921 0.739375 0.039549 0.776390 0.629011
0.137783 0.939524 0.313544 0.201975 0.318116 0.926287
0.019393 0.736216 0.676469 -0.010893 0.675488 0.737291
0.799226 0.564423 0.206553 0.655606 0.741357 0.143426
0.874754 0.356550 0.328141 0.248288 0.957925 0.143993
-0.681206 0.515618 0.519708 0.177022 0.898483 0.401735
-0.669574 0.526975 0.523419 -0.018299 0.931798 0.362514
-0.206365 0.144401 0.967761 0.147162 0.978719 0.143013
0.141905 0.940133 0.309859 -0.303714 0.322600 0.896486
-0.561575 0.187743 0.805845 0.227197 0.958362 0.172984
-0.742159 0.546361 0.388187 -0.093115 0.944243 0.315809
-0.867770 0.460714 0.186329 0.139628 0.938276 0.316454
-0.877412 0.445946 0.176861 0.162232 0.934389 0.317171
-0.779294 0.187605 0.597918 0.141635 0.977576 0.155834
-0.243919 0.940447 0.236777 -0.790806 0.510087 0.338286
-0.106505 0.977519 0.181970 0.964189 0.254529 0.074523
-0.927543 0.335865 0.163888 0.169331 0.952151 0.254432
0.929951 0.310571 0.196816 -0.004603 0.984679 0.174316
0.360442 0.930262 0.068521 0.901358 0.419102 0.109122
0.110424 0.961212 0.252740 -0.916563 0.378233 0.129813
0.110562 0.982957 0.146875 -0.935840 0.190896 0.296247
-0.468790 0.847864 0.247716 -0.609588 0.752686 0.248731
0.960752 0.244880 0.130342 -0.164847 0.965579 0.201204
-0.952452 0.296029 0.072130 -0.007249 0.988631 0.150186
0.886665 0.425425 0.181215 0.047973 0.975581 0.214335
0.558132 0.827894 0.055497 0.851506 0.512842 0.109230
0.808039 0.540353 0.234714 0.166019 0.956137 0.241328
-0.942650 0.262459 0.206220 -0.269398 0.961624 0.052007
-0.256022 0.956059 -0.142846 -0.988423 -0.075632 0.131531
0.935015 0.351047 0.050136 0.337723 0.940943 0.023846
-0.997937 -0.027488 0.058018 -0.063363 0.997058 -0.043138
-0.375572 0.918625 0.122774 -0.868824 0.439087 0.228796
0.928198 0.105054 0.356949 -0.095801 0.991321 0.090025
0.764883 0.304155 0.567841 0.208244 0.960450 0.184851
-0.196232 0.858974 0.472923 -0.465746 0.672574 0.575087
0.737322 0.516039 0.435958 0.565401 0.776478 0.278215
0.397078 0.731223 0.554655 0.433296 0.647687 0.626702
-0.656467 0.345855 0.670399 0.287611 0.907691 0.305576
-0.485482 0.591418 0.643842 0.137771 0.859362 0.492460
0.335705 0.054042 0.940416 0.135798 0.989452 0.050431
-0.141263 0.650435 0.746311 0.188408 0.717311 0.670797
-0.059691 0.716673 0.694850 -0.059530 0.694635 0.716895
-0.053379 0.478090 0.876688 0.525431 0.572612 0.629315
0.894858 0.403766 0.190269 -0.192538 0.167868 0.966824
0.346907 -0.070889 0.935217 0.496928 0.865023 -0.069263
0.336490 -0.008320 0.941650 0.906287 0.410215 0.101817
0.120462 0.147491 0.981700 0.530525 0.829243 0.175782
0.806389 -0.192587 0.559149 0.933897 0.338420 -0.115365
0.402137 0.887614 0.224560 -0.096195 0.208370 0.973308
-0.009550 0.748805 0.662721 0.001258 0.662478 0.749080
-0.997511 -0.002042 0.070476 -0.996298 0.084706 -0.014638
0.276156 0.917361 0.286683 -0.346947 0.292593 0.891076
0.110789 0.950765 0.289433 0.155200 0.291579 0.943872
0.919613 -0.242081 0.309369 0.624771 0.718277 -0.306169
0.950361 -0.121444 0.286472 0.516571 0.829246 -0.213320
0.090519 0.877713 0.470560 -0.096452 0.471014 0.876837
0.887522 -0.149925 0.435691 0.243413 0.958004 -0.151586
0.628172 0.773839 0.081079 0.883899 0.396633 0.247800
-0.206316 0.788451 0.579464 -0.297166 0.703663 0.645408
0.834572 0.386601 0.392465 0.503168 0.850484 0.153291
0.429951 0.507817 0.746502 0.360377 0.806450 0.468793
0.774732 0.256993 0.577707 0.381860 0.913218 0.142178
-0.544576 0.377167 0.749120 -0.075746 0.948844 0.306524
-0.402825 0.859277 0.315239 -0.489483 0.816110 0.307200
0.934334 0.317877 0.161167 -0.159771 0.957540 0.239979
0.605317 0.793441 0.063578 0.815437 0.570282 0.099200
-0.927192 0.221602 0.302006 0.104642 0.980969 0.163552
-0.868368 0.403462 0.288368 -0.081426 0.974473 0.209220
-0.849400 0.521420 0.081489 -0.267400 0.953510 0.138985
-0.493687 0.857057 0.147398 -0.712765 0.686928 0.141761
-0.898702 0.402301 0.174608 -0.105927 0.978498 0.176978
-0.201078 0.967627 0.152531 -0.881802 0.453808 0.128384
0.973979 0.181539 0.135674 -0.046487 0.992083 0.116659
-0.908469 0.180053 0.377181 0.075356 0.988495 0.131146
-0.854648 0.464392 0.232200 -0.250783 0.952615 0.172140
-0.604188 0.777188 0.175884 -0.707963 0.678509 0.195994
0.869764 0.472758 0.141456 0.077564 0.972602 0.219157
0.960001 0.243599 0.138052 -0.178463 0.962178 0.205826
-0.837415 0.509664 0.197431 -0.460760 0.878926 0.123244
-0.998758 0.047533 0.014962 -0.232344 0.968726 -0.087098
0.030652 0.974375 0.222831 -0.852543 0.342208 0.395050
-0.222399 0.932256 0.285372 -0.718394 0.639860 0.272929
-0.317890 0.805537 0.500056 -0.424839 0.714384 0.556028
-0.742760 0.434305 0.509594 -0.050733 0.957027 0.285525
-0.651548 0.739346 0.169862 -0.420591 0.885356 0.198113
-0.957056 0.163791 0.239200 0.115063 0.984435 0.132849
-0.412575 0.904478 0.108168 -0.809534 0.579820 0.091995
0.863495 0.309043 0.398583 0.105361 0.980291 0.167119
-0.494653 0.240138 0.835256 0.158561 0.962957 0.218113
0.644439 0.387420 0.659245 0.265283 0.923519 0.277017
-0.980000 0.132511 0.148461 0.125653 0.984559 0.121882
-0.074441 0.624440 0.777517 0.015066 0.786455 0.617464
0.725127 0.598815 0.340016 0.686708 0.660622 0.303335
0.043087 0.823557 0.565594 -0.025134 0.564645 0.824951
0.026829 0.999511 0.016082 0.482267 0.018924 0.875820
-0.535680 0.518330 0.666619 0.393142 0.780154 0.486620
-0.392333 0.592510 0.703567 0.080241 0.856249 0.510294
0.261687 0.961333 -0.085782 0.829733 -0.063678 0.554516
-0.575853 0.384552 0.721466 0.679203 0.621067 0.391099
0.593610 -0.109388 0.797284 0.389963 0.914011 -0.111859
-0.046053 0.788679 0.613077 -0.042315 0.612667 0.789208
0.212259 0.336490 0.917453 0.195494 0.921761 0.334870
0.871526 0.393544 0.292515 -0.340634 0.273777 0.899452
0.719550 0.272175 0.638881 0.426352 0.231146 0.874526
0.989339 0.091571 0.113239 0.678297 -0.161906 0.716729
0.067936 0.053687 0.996244 0.126427 0.990504 0.054020
0.837519 -0.338573 0.428871 0.828484 0.443723 -0.341648
0.867198 -0.214810 0.449248 0.536295 0.806964 -0.247379
0.218187 0.581504 0.783739 0.165605 0.809927 0.562666
-0.570405 0.174839 0.802540 0.221174 0.961837 0.161094
0.292578 0.785870 0.544800 0.313877 0.557022 0.768900
0.667793 0.705620 0.236965 0.693976 0.675842 0.248263
-0.257328 0.927240 0.272043 -0.739539 0.495136 0.455984
0.566091 0.574191 0.591478 0.524214 0.702916 0.480739
-0.262007 0.697176 0.667306 -0.238511 0.740097 0.628784
0.890703 0.094178 0.444724 0.219890 0.975419 0.014372
-0.007995 0.999800 0.018326 -0.788312 0.026890 0.614687
0.894013 0.349956 0.279770 0.473051 0.877486 0.078994
0.914848 0.381963 0.130988 0.499740 0.865909 0.021490
-0.969090 0.207400 0.133603 -0.015541 0.994383 0.104695
0.938168 0.343470 0.043240 0.200806 0.976562 0.077486
-0.961642 0.273227 0.024346 -0.133104 0.988477 0.072093
0.148398 0.975853 0.160277 0.898199 0.391513 0.199891
-0.594227 0.764890 0.248670 -0.705610 0.644143 0.295286
-0.591472 0.802395 0.079513 -0.725339 0.683861 0.078853
-0.844033 0.521246 0.126138 -0.369320 0.921845 0.117488
-0.744165 0.496987 0.446343 -0.059380 0.948939 0.309822
-0.773484 0.530382 0.347012 -0.099387 0.951233 0.292025
0.140606 0.937390 0.318638 0.714197 0.642495 0.277710
-0.221095 0.913634 0.341161 0.871873 0.443087 0.208592
-0.747852 0.578266 0.326077 -0.119500 0.944078 0.307306
-0.822990 0.539608 0.177511 -0.066987 0.961497 0.266525
0.770183 0.593835 0.232762 0.257341 0.937450 0.234444
-0.748011 0.532500 0.396135 0.045813 0.934959 0.351785
0.581496 0.779455 0.233049 0.462908 0.853131 0.240591
0.879849 0.370247 0.297964 -0.098696 0.962664 0.252067
-0.482775 0.573897 0.661492 -0.014255 0.890486 0.454787
0.392015 0.891224 0.228130 0.640818 0.740944 0.200884
-0.366359 0.905653 0.213480 -0.727456 0.653571 0.208934
-0.364830 0.639805 0.676423 -0.078498 0.847632 0.524745
0.890402 0.005258 0.455145 0.066342 0.997738 -0.010864
-0.638136 0.289532 0.713410 0.342453 0.900676 0.267410
-0.102813 0.534457 0.838919 0.031651 0.848197 0.528734
0.641976 0.706109 0.298794 -0.581482 0.297183 0.757338
0.847602 -0.073180 0.525561 0.277553 0.955723 -0.097765
0.812666 0.196563 0.548578 0.684240 0.719744 0.117408
-0.073583 0.675466 0.733710 -0.061830 0.740153 0.669590
0.188406 0.216661 0.957894 0.079220 0.973822 0.213062
0.245677 0.427631 0.869928 0.525427 0.499549 0.688751
0.781933 0.352486 0.514134 0.794013 0.454318 0.403904
0.395417 0.028214 0.918068 0.934733 0.238492 0.263430
0.526613 0.078766 0.846448 0.828867 0.523796 0.196512
-0.334380 0.372635 0.865640 -0.412729 0.821122 0.394225
0.562148 -0.319665 0.762761 0.922569 0.281157 -0.264230
0.560585 -0.188430 0.806373 0.808729 0.565409 -0.162080
0.505645 0.341847 0.792126 0.637468 0.411419 0.651436
-0.023166 0.184533 0.982553 -0.382085 0.902220 0.200026
0.111648 0.631368 0.767404 0.107282 0.769314 0.629799
0.816328 -0.090127 0.570514 0.723844 0.679974 -0.116984
0.070925 0.454535 0.887901 0.449109 0.695832 0.560463
0.335171 0.074230 0.939229 -0.335478 0.939119 0.074232
0.510777 0.859352 -0.024926 0.831614 0.048287 0.553250
0.196567 0.828024 0.525107 -0.191094 0.524071 0.829959
0.876547 0.156902 0.455024 0.449418 0.892921 0.026746
-0.590370 0.238459 0.771103 0.275171 0.936062 0.219247
0.139571 0.990085 0.015874 0.450546 0.020642 0.892515
-0.629385 0.221125 0.744968 0.205820 0.958688 0.196355
0.472135 0.309756 0.825312 0.387895 0.874978 0.289744
-0.072854 0.885619 0.458662 -0.266917 0.487883 0.831099
-0.138199 0.915323 0.378267 -0.558550 0.502521 0.659920
0.560326 0.500075 0.660273 0.526105 0.715950 0.458943
-0.312790 0.062308 0.947776 0.078400 0.995111 0.060069
-0.472601 0.081109 0.877536 -0.032733 0.996900 0.071552
-0.378383 0.821891 0.425818 -0.540674 0.554168 0.632905
0.119807 0.992711 -0.013110 0.989519 0.066731 0.128058
-0.950209 0.159867 0.267480 0.118086 0.984315 0.131071
-0.112989 0.975753 0.187456 -0.870816 0.371004 0.322545
-0.476480 0.852454 0.215150 -0.726573 0.635931 0.260159
-0.934209 0.317162 0.163284 -0.260242 0.962845 0.072140
-0.927277 0.365924 0.079107 -0.305732 0.950622 0.053340
-0.906701 0.403796 0.121829 -0.318187 0.944549 0.081149
-0.744905 0.649645 0.151915 -0.519234 0.843224 0.139171
-0.975255 0.209746 0.069893 -0.091751 0.993547 0.066676
-0.868936 0.385510 0.310374 -0.396428 0.909686 0.123758
-0.802597 0.451631 0.389701 -0.469382 0.861423 0.193987
-0.836443 0.523656 0.161702 -0.323384 0.934315 0.149929
0.019979 0.996294 0.083661 0.977446 0.172965 0.121169
-0.844909 0.436236 0.309559 -0.370446 0.915557 0.156604
-0.240056 0.944872 0.222687 0.968521 0.224102 0.108380
0.869264 0.385235 0.309798 -0.203462 0.932631 0.297998
0.099817 0.932567 0.346924 0.699423 0.640767 0.316583
-0.472811 0.816587 0.331113 -0.410506 0.848344 0.334362
-0.795770 0.547884 0.258018 0.120296 0.921939 0.368181
0.030714 0.933738 0.356636 0.725752 0.627447 0.282125
-0.362882 0.866286 0.343314 -0.573882 0.734119 0.362945
-0.829841 0.468235 0.303512 -0.085967 0.964814 0.248481
-0.751753 0.442017 0.489376 0.011306 0.953942 0.299779
-0.244555 0.916519 0.316522 0.904922 0.387284 0.176427
-0.383109 0.878614 0.285069 -0.565427 0.780011 0.268096
-0.914153 0.389618 0.111898 -0.007596 0.979131 0.203086
-0.929882 0.257016 0.263177 0.200482 0.955437 0.216672
0.781390 0.396962 0.481508 -0.045239 0.960376 0.275013
-0.475104 0.296197 0.828579 0.356832 0.889358 0.285855
